X;Y;Z;R;G;B;A
1.51300049;-119.44299316;184.97399902;145;219;247;255
0.23602295;-117.14202881;185.20199585;111;185;219;255
0.65997314;-118.05798340;185.16299438;108;183;218;255
1.16699219;-119.12701416;184.98300171;138;209;238;255
-0.02600098;-117.01599121;185.37300110;133;207;238;255
0.12200928;-117.38299561;185.15299988;107;184;220;255
0.47100830;-118.13800049;185.17999268;118;190;226;255
0.98498535;-119.21801758;184.99899292;142;215;243;255
-0.20501709;-117.08898926;185.38900757;129;202;235;255
-0.07702637;-117.46997070;185.18200684;106;177;215;255
0.01300049;-117.65301514;185.17900085;105;182;216;255
0.95599365;-119.67602539;184.99800110;136;209;238;255
0.51501465;-119.19500732;184.98500061;133;211;238;255
0.70001221;-119.58801270;184.99099731;129;202;231;255
0.75598145;-119.76300049;184.98899841;146;218;247;255
-0.33001709;-117.82000732;185.19900513;113;187;220;255
0.31597900;-119.28198242;184.98899841;137;212;240;255
0.40197754;-119.48199463;184.97300720;123;198;226;255
0.50000000;-119.67498779;184.97000122;131;206;235;255
-0.02398682;-119.91497803;184.95599365;149;220;247;255
0.06402588;-120.11499023;184.97799683;101;177;209;255
-0.94299316;-119.46301270;184.97799683;131;207;234;255
-1.63598633;-118.41101074;185.19999695;148;215;234;255
0.66699219;-119.88201904;184.95300293;127;201;234;255
1.31402588;-117.72601318;184.89799500;60;148;180;255
1.69500732;-118.66900635;184.84700012;113;191;219;255
1.02697754;-117.67700195;185.05599976;103;176;206;255
1.72302246;-119.12200928;184.89500427;141;209;234;255
1.88299561;-119.45501709;184.90299988;146;218;243;255
0.84802246;-117.75000000;185.07200623;107;181;215;255
0.80798340;-118.16998291;185.05799866;105;181;216;255
0.79199219;-118.65002441;185.06900024;87;167;201;255
0.45397949;-118.34399414;185.10299683;126;200;235;255
0.63098145;-118.72601318;185.05999756;138;218;249;255
0.26397705;-118.42401123;185.08200073;110;184;217;255
0.35101318;-118.62402344;185.05400085;144;219;248;255
0.43103027;-118.81298828;185.08900452;140;216;245;255
-0.31701660;-117.63098145;185.28799438;104;180;217;255
-0.07800293;-118.18103027;185.09100342;137;211;241;255
0.02301025;-118.35699463;185.10000610;139;213;243;255
0.15197754;-118.71099854;185.09599304;146;218;245;255
0.24798584;-118.90399170;185.06799316;134;210;239;255
-0.59698486;-117.52899170;185.29499817;132;207;234;255
-0.22900391;-118.25097656;185.06799316;144;215;241;255
-0.16699219;-118.39099121;185.07899475;145;216;242;255
-0.78601074;-117.60900879;185.29800415;135;212;241;255
-0.43200684;-118.30999756;185.08500671;144;216;242;255
-0.17199707;-118.86401367;185.07699585;145;215;242;255
-0.08502197;-119.06402588;185.06199646;143;213;240;255
-0.45098877;-118.76098633;185.08399963;142;214;241;255
-0.97698975;-118.09802246;185.28799438;144;212;240;255
-0.91802979;-118.76702881;185.06900024;145;217;245;255
-0.76800537;-120.02801514;184.89599609;131;205;232;255
0.56500244;-118.16601563;185.16499329;107;184;220;255
-0.71398926;-118.27001953;185.16799927;131;202;234;255
0.57501221;-117.26599121;185.15600586;107;183;221;255
0.13598633;-116.80297852;185.38299561;127;200;232;255
1.87597656;-118.58801270;184.46400452;60;132;168;255
2.07202148;-118.94598389;184.64799500;95;197;226;255
1.87902832;-119.06201172;184.85400391;106;185;210;255
0.49200439;-117.44000244;185.09399414;109;183;218;255
0.56097412;-118.53002930;185.05000305;99;179;216;255
0.00701904;-118.79101563;185.06100464;141;212;240;255
-0.51000977;-117.68298340;185.27900696;129;205;238;255
-0.69598389;-117.79101563;185.28300476;129;203;234;255
-0.85797119;-117.86798096;185.28599548;128;203;235;255
-0.54498291;-118.59600830;185.09899902;146;215;242;255
-1.09802246;-118.37500000;185.27699280;199;237;251;255
0.67401123;-119.89202881;184.95300293;134;201;236;255
-0.26202393;-119.83001709;184.94900513;139;208;238;255
-0.53497314;-119.73797607;184.94200134;145;214;243;255
-0.67901611;-119.81799316;184.91999817;145;214;242;255
1.20697021;-117.63098145;184.95100403;18;105;145;255
0.19500732;-117.42498779;185.11300659;118;192;229;255
0.59301758;-116.76800537;185.14500427;151;220;250;255
-1.16802979;-117.83197021;185.35600281;153;223;250;255
0.20501709;-120.26202393;184.88600159;113;187;226;255
1.98498535;-118.79199219;184.66299438;100;200;232;255
0.63702393;-118.25402832;185.10000610;124;199;236;255
-0.10400391;-118.62200928;185.07699585;164;230;254;255
0.51098633;-118.20098877;185.11500549;114;189;223;255
0.30603027;-117.50299072;185.09800720;120;193;229;255
0.81500244;-117.10498047;185.08799744;113;190;227;255
1.73901367;-118.57800293;184.78300476;66;151;191;255
1.84399414;-118.78198242;184.79299927;96;192;226;255
2.02099609;-119.16400146;184.78700256;113;195;228;255
2.08398438;-119.30401611;184.79800415;119;201;231;255
1.24102783;-119.88000488;184.94000244;141;212;241;255
-0.36602783;-118.43200684;185.09599304;159;225;249;255
-0.88500977;-117.78002930;185.30000305;140;214;242;255
-0.82000732;-117.99401855;185.25999451;146;214;240;255
-0.50097656;-118.73297119;185.07200623;155;222;248;255
-0.98699951;-118.05999756;185.30099487;147;215;241;255
-0.73797607;-118.60302734;185.07800293;142;214;241;255
-1.11499023;-118.32598877;185.27699280;228;247;252;255
-1.45098877;-118.04797363;185.27299500;156;216;239;255
-1.37701416;-118.22698975;185.30900574;235;247;253;255
-1.28997803;-118.42700195;185.28100586;237;245;250;255
-1.12402344;-118.79797363;185.08599854;131;202;231;255
-1.51800537;-118.33502197;185.27400208;200;232;251;255
-1.30297852;-118.87097168;185.07699585;146;219;243;255
-0.71997070;-120.19201660;184.89399719;144;215;242;255
-0.55999756;-120.52600098;184.88900757;134;209;237;255
-1.48602295;-118.96099854;185.05499268;144;218;244;255
-1.03698730;-119.87298584;184.90199280;139;213;239;255
-1.92602539;-118.52502441;185.05400085;145;217;243;255
-1.81402588;-118.69396973;185.10200500;144;215;241;255
-2.01300049;-118.32501221;185.05700684;149;218;244;255
-1.04199219;-118.66802979;185.12300110;120;194;225;255
1.07098389;-117.58599854;185.00500488;82;157;194;255
1.15100098;-117.77502441;185.00199890;128;168;190;255
1.78900146;-118.38800049;184.47999573;51;131;172;255
2.14501953;-119.08001709;184.67100525;112;195;227;255
1.36499023;-117.87298584;184.88299561;71;143;182;255
1.76501465;-118.82000732;184.85800171;106;194;224;255
1.76000977;-119.24798584;184.86799622;143;209;236;255
1.85498047;-119.41302490;184.89100647;135;208;235;255
0.08801270;-119.28100586;184.99400330;142;214;240;255
0.29602051;-119.64300537;184.96200562;132;206;234;255
-0.66101074;-118.09899902;185.16700745;138;208;238;255
-1.06097412;-117.62597656;185.39300537;148;222;248;255
-0.06298828;-119.35101318;184.99699402;150;219;245;255
-1.03100586;-117.78698730;185.35400391;152;224;248;255
-0.01501465;-119.56097412;184.98199463;139;213;240;255
0.10302734;-119.73999023;184.96600342;141;214;241;255
0.16900635;-119.95397949;184.96400452;144;217;246;255
-0.39501953;-119.10101318;184.99299622;148;215;241;255
-0.33300781;-119.24102783;184.96499634;158;224;248;255
-0.24597168;-119.44097900;184.98800659;147;216;244;255
-0.19702148;-119.65100098;184.97300720;145;217;244;255
-0.09002686;-119.83697510;184.95700073;138;209;236;255
-0.02001953;-120.03399658;184.96800232;141;214;244;255
-0.96002197;-118.44799805;185.17199707;131;198;226;255
-0.77197266;-118.80499268;185.00199890;142;214;241;255
-0.66497803;-118.99102783;184.96099854;145;213;240;255
-0.58502197;-119.18103027;184.97099304;150;216;242;255
-0.52600098;-119.33898926;184.98199463;151;218;244;255
-0.43499756;-119.52099609;184.96600342;153;221;247;255
-0.33801270;-119.71398926;184.96299744;147;217;243;255
-1.11401367;-118.53497314;185.20100403;194;222;239;255
-0.61798096;-119.61102295;184.97000122;146;217;242;255
-0.97802734;-119.36499023;184.99200439;142;215;242;255
-0.89801025;-119.50897217;184.97700500;138;213;239;255
-1.66998291;-118.31298828;185.20100403;147;214;240;255
-1.41699219;-118.85699463;185.16799927;153;220;243;255
-1.25701904;-119.26300049;184.99800110;141;214;241;255
-1.15002441;-119.44897461;184.95700073;143;216;243;255
1.67797852;-118.61999512;184.86000061;92;171;200;255
0.83099365;-117.70098877;185.07299805;109;183;218;255
0.29199219;-117.48199463;185.09800720;113;187;223;255
0.53399658;-118.48797607;185.06300354;113;190;227;255
-0.23901367;-117.29199219;185.27499390;105;178;213;255
0.23699951;-118.38201904;185.09500122;113;186;220;255
0.33300781;-118.57501221;185.05499268;124;201;233;255
0.41400146;-118.76397705;185.08999634;137;214;243;255
-0.32000732;-117.55798340;185.30099487;102;177;214;255
0.00598145;-118.30700684;185.08799744;139;212;242;255
0.06799316;-118.44799805;185.09899902;146;219;246;255
0.23101807;-118.85498047;185.08099365;137;212;240;255
-0.52398682;-117.66198730;185.27999878;125;200;232;255
-0.19500732;-118.39398193;185.08000183;145;215;243;255
-0.81402588;-117.56701660;185.29899597;137;214;240;255
-0.71997070;-117.73101807;185.29600525;135;209;238;255
-0.28698730;-118.62200928;185.05599976;143;215;242;255
-0.10900879;-119.00402832;185.07499695;139;210;237;255
0.80999756;-116.91302490;185.11500549;107;182;221;255
-0.46002197;-117.52899170;185.30400085;113;190;226;255
-1.02099609;-117.78002930;185.34100342;135;210;241;255
1.85797119;-118.53900146;184.45199585;58;138;177;255
0.79101563;-118.12097168;185.07200623;104;180;217;255
0.77600098;-118.60101318;185.09500122;96;176;213;255
0.62402344;-118.66998291;185.04800415;103;183;216;255
0.15600586;-118.64801025;185.10899353;137;210;239;255
-0.91699219;-118.72100830;185.09399414;143;214;243;255
-1.35101318;-117.78497314;185.29800415;146;216;243;255
-0.79602051;-119.98498535;184.89700317;129;203;229;255
-0.14001465;-120.03698730;184.94500732;130;204;235;255
0.15600586;-116.78900146;185.34399414;130;203;235;255
2.26898193;-119.08697510;184.55499268;6;26;54;255
2.03698730;-118.89398193;184.66200256;96;204;231;255
0.90698242;-117.86199951;185.05799866;134;204;236;255
-0.45300293;-118.27801514;185.08599854;150;221;247;255
1.23101807;-117.78198242;184.97500610;103;157;180;255
1.95697021;-118.75000000;184.66400146;86;186;220;255
0.08398438;-118.01397705;185.10000610;114;187;225;255
0.42401123;-116.78900146;185.08599854;149;219;248;255
-0.02099609;-118.74902344;185.06199646;143;214;242;255
0.92901611;-117.22802734;185.16099548;100;177;213;255
-0.25701904;-118.20800781;185.08200073;141;215;248;255
2.09698486;-119.09698486;184.71000671;109;191;225;255
-0.07598877;-120.56896973;184.90299988;124;203;234;255
1.02099609;-120.02697754;184.97000122;118;192;223;255
-0.15802002;-120.74401855;184.87899780;137;212;241;255
0.71301270;-120.22900391;184.89999390;95;171;207;255
0.19396973;-120.40600586;184.89799500;107;180;214;255
0.62597656;-120.25598145;184.90199280;98;173;211;255
0.25701904;-120.40899658;184.88400269;91;164;201;255
-0.40997314;-120.68402100;184.86000061;137;213;240;255
0.26397705;-120.55603027;184.89599609;95;168;203;255
-0.26898193;-120.62097168;184.90699768;124;201;230;255
0.76300049;-120.16601563;184.89900208;104;180;216;255
0.64697266;-120.19702148;184.90199280;90;166;202;255
-0.22100830;-120.83099365;184.85499573;142;215;242;255
0.78698730;-120.13397217;184.89900208;102;176;213;255
0.62200928;-120.27398682;184.90199280;98;175;212;255
0.01501465;-120.61499023;184.88800049;97;174;207;255
0.29199219;-120.46197510;184.88299561;91;165;200;255
-0.31896973;-120.77502441;184.86999512;134;210;237;255
0.32000732;-120.50402832;184.88200378;86;159;195;255
0.20397949;-120.58099365;184.89700317;89;161;195;255
1.06298828;-119.99902344;184.96899414;139;211;241;255
0.01098633;-120.72399902;184.87500000;100;173;204;255
-0.01702881;-120.68103027;184.87600708;93;172;206;255
0.85400391;-120.16601563;184.89700317;109;185;220;255
0.47198486;-120.29797363;184.90499878;102;178;215;255
0.38000488;-120.43402100;184.89399719;103;180;216;255
-0.16601563;-120.56896973;184.93099976;124;203;234;255
-0.18298340;-120.82098389;184.86700439;137;211;240;255
-0.26397705;-120.85900879;184.84300232;148;220;244;255
0.07098389;-120.51702881;184.89999390;98;172;205;255
0.13098145;-120.49298096;184.89900208;97;170;204;255
0.89001465;-120.08197021;184.92199707;105;180;214;255
0.54797363;-120.36798096;184.90299988;83;161;197;255
0.24298096;-120.38800049;184.88400269;102;175;210;255
0.69598389;-120.17999268;184.90100098;92;168;204;255
0.43902588;-120.40997314;184.89300537;102;180;216;255
0.13098145;-120.49298096;184.91200256;95;170;204;255
0.31701660;-120.52197266;184.89500427;93;166;201;255
0.01202393;-120.49597168;184.90199280;98;175;206;255
0.60900879;-120.20697021;184.90199280;102;177;215;255
-0.29101563;-120.81701660;184.85600281;136;211;238;255
0.95001221;-120.05798340;184.94599915;97;170;203;255
-0.07897949;-120.54101563;184.92900085;128;205;235;255
0.55902100;-120.27001953;184.90299988;107;182;218;255
0.24597168;-120.55297852;184.89599609;94;166;200;255
-0.31701660;-120.89398193;184.83099365;132;208;235;255
0.50000000;-120.34002686;184.90400696;102;177;214;255
0.67102051;-120.25598145;184.90100098;96;173;210;255
1.19201660;-119.94299316;184.96600342;139;211;239;255
0.43597412;-120.29101563;184.89300537;99;175;212;255
0.27801514;-120.53198242;184.89599609;90;163;198;255
0.38000488;-120.38897705;184.88099670;94;171;206;255
-0.25201416;-120.66998291;184.89399719;125;206;233;255
0.49902344;-120.38598633;184.90400696;90;170;205;255
-0.22802734;-120.72998047;184.88099670;129;208;235;255
0.54498291;-120.24902344;184.90400696;98;176;213;255
-0.37298584;-120.85498047;184.82000732;138;212;239;255
0.10998535;-120.64398193;184.91099548;81;156;189;255
-0.17700195;-120.57598877;184.91799927;127;205;235;255
0.08898926;-120.56597900;184.89999390;100;170;203;255
-0.07598877;-120.70599365;184.90299988;132;207;237;255
0.09197998;-120.64001465;184.89900208;92;166;199;255
0.36199951;-120.38500977;184.88200378;94;170;206;255
0.34497070;-120.33599854;184.88200378;102;176;213;255
0.74499512;-120.16198730;184.89999390;92;167;204;255
-0.32202148;-120.65600586;184.89599609;129;207;236;255
0.20098877;-120.55297852;184.89700317;80;153;187;255
0.21502686;-120.43701172;184.88499451;94;166;201;255
-0.09399414;-120.65698242;184.90299988;143;215;242;255
-0.31799316;-120.63897705;184.89599609;122;200;230;255
0.13800049;-120.54901123;184.89900208;84;158;192;255
-0.35498047;-120.81298828;184.84500122;139;213;241;255
-0.27697754;-120.74700928;184.88200378;140;215;243;255
-0.45202637;-120.71099854;184.84800720;136;211;239;255
0.08898926;-120.52099609;184.91200256;96;170;203;255
0.04400635;-120.47497559;184.91400146;101;173;207;255
-0.12799072;-120.55902100;184.92999268;135;211;240;255
-0.00598145;-120.49200439;184.90199280;122;194;228;255
0.52099609;-120.32598877;184.90400696;98;177;213;255
-0.24902344;-120.78900146;184.86799622;140;215;242;255
0.03997803;-120.53802490;184.90100098;102;177;208;255
-0.09100342;-120.77600098;184.87699890;135;208;238;255
0.12402344;-120.61901855;184.89900208;85;157;192;255
-0.42797852;-120.77099609;184.83399963;139;214;241;255
0.86102295;-120.13098145;184.89700317;104;177;213;255
-0.41101074;-120.82000732;184.82099915;141;215;241;255
-0.37097168;-120.67297363;184.88400269;133;210;238;255
-0.32702637;-120.94598389;184.83099365;135;209;236;255
-0.23101807;-120.79302979;184.88099670;135;211;239;255
0.06402588;-120.59802246;184.88699341;95;169;202;255
-0.22601318;-120.59301758;184.91900635;126;205;235;255
-0.24401855;-120.68103027;184.90699768;135;211;240;255
-0.33001709;-120.82702637;184.84500122;149;222;248;255
-0.17102051;-120.63201904;184.89300537;136;212;240;255
0.88598633;-120.09997559;184.90899658;100;180;215;255
0.63702393;-120.20397949;184.90199280;99;176;213;255
0.29901123;-120.38098145;184.88299561;99;173;210;255
0.11999512;-120.50000000;184.89900208;99;172;206;255
-0.20202637;-120.65301514;184.91799927;132;208;237;255
0.41101074;-120.36798096;184.88099670;96;173;209;255
0.81500244;-120.17602539;184.89799500;91;167;203;255
-0.02398682;-120.67102051;184.87600708;116;194;226;255
0.42901611;-120.37097168;184.89300537;98;176;212;255
0.25000000;-120.48999023;184.88400269;84;157;193;255
0.86401367;-120.15899658;184.89700317;101;175;211;255
-0.34301758;-120.71502686;184.87100220;137;213;241;255
1.09100342;-119.99499512;184.96800232;141;213;243;255
0.20800781;-120.51800537;184.89700317;96;168;203;255
0.48498535;-120.27301025;184.89199829;104;181;218;255
0.17297363;-120.46502686;184.88600159;101;173;208;255
-0.10797119;-120.72698975;184.89100647;137;211;240;255
0.59100342;-120.34002686;184.91499329;88;166;202;255
0.77301025;-120.20397949;184.89900208;93;169;205;255
-0.39300537;-120.77801514;184.84599304;152;222;249;255
-0.04199219;-120.75799561;184.87600708;137;205;236;255
-0.28497314;-120.87298584;184.85600281;134;209;239;255
-0.14001465;-120.79302979;184.87800598;135;209;238;255
0.03997803;-120.53802490;184.90100098;79;155;191;255
-0.05200195;-120.58300781;184.88999939;117;196;228;255
0.80798340;-120.16601563;184.89799500;108;182;219;255
-0.09997559;-120.60101318;184.90400696;121;201;234;255
0.55603027;-120.24200439;184.90299988;107;184;222;255
0.95397949;-120.04101563;184.95899963;114;189;221;255
-0.29400635;-120.69799805;184.88200378;127;206;234;255
0.30200195;-120.36401367;184.87100220;106;180;215;255
0.39398193;-120.31896973;184.88099670;97;174;210;255
0.16601563;-120.54602051;184.89799500;94;167;201;255
-0.14300537;-120.67401123;184.89199829;132;208;237;255
-0.20898438;-120.73297119;184.90600586;137;212;241;255
-0.03698730;-120.51300049;184.90299988;113;189;220;255
0.62902832;-120.28399658;184.90199280;99;173;210;255
0.21502686;-120.57397461;184.89700317;100;174;208;255
0.84698486;-120.10998535;184.91000366;104;179;215;255
0.59399414;-120.23199463;184.90299988;98;178;213;255
0.56298828;-120.29797363;184.90299988;93;173;208;255
0.36199951;-120.47601318;184.88099670;97;172;207;255
0.13397217;-120.61199951;184.89799500;88;161;195;255
0.15197754;-120.61602783;184.89799500;79;151;184;255
0.32702637;-120.42297363;184.88200378;94;169;204;255
1.21301270;-119.92901611;184.95300293;145;220;247;255
0.10601807;-120.57000732;184.89900208;81;157;189;255
-0.21899414;-120.60400391;184.91900635;127;204;233;255
0.72100830;-120.19396973;184.89999390;100;177;213;255
0.50299072;-120.32299805;184.90400696;103;181;217;255
0.03198242;-120.66400146;184.88800049;93;169;201;255
0.47802734;-120.39898682;184.89199829;101;180;216;255
0.50299072;-120.27697754;184.90400696;98;176;213;255
0.14202881;-120.48602295;184.89900208;85;156;190;255
-0.00299072;-120.56597900;184.88900757;102;179;211;255
0.14501953;-120.42297363;184.89900208;100;174;208;255
-0.16802979;-120.70599365;184.89199829;130;206;235;255
-0.03802490;-120.55902100;184.88999939;136;213;242;255
-0.27197266;-120.63897705;184.90699768;129;207;236;255
0.09301758;-120.45800781;184.91299438;105;175;208;255
-0.07501221;-120.52398682;184.91600037;123;203;235;255
0.45397949;-120.34002686;184.89300537;101;180;216;255
1.14300537;-119.96099854;184.96699524;140;213;242;255
0.34100342;-120.35302734;184.86999512;94;169;205;255
-0.38598633;-120.74298096;184.84599304;131;208;235;255
-0.03698730;-114.47100830;185.77600098;152;217;245;255
-0.73602295;-113.91900635;184.98500061;117;179;214;255
-0.45599365;-114.46801758;185.36799622;139;204;232;255
-0.40002441;-114.66198730;185.55499268;143;207;235;255
-0.00201416;-115.55401611;185.78300476;149;215;244;255
1.48602295;-114.27001953;185.19999695;148;216;242;255
1.38299561;-114.54998779;185.20100403;119;193;225;255
1.46099854;-112.77099609;185.92700195;128;211;239;255
0.74401855;-112.62500000;185.96899414;123;210;239;255
1.30798340;-114.82702637;185.16299438;114;190;221;255
1.83801270;-112.93902588;185.57699585;111;173;200;255
1.74499512;-112.79199219;185.76899719;78;106;129;255
1.50402832;-112.23297119;186.20599365;74;141;184;255
1.81097412;-113.38897705;185.19599915;88;92;98;255
0.47497559;-113.36297607;185.95899963;153;221;247;255
0.67498779;-114.37902832;185.81100464;151;216;244;255
-0.31298828;-115.01599121;185.71600342;137;201;228;255
1.14697266;-114.04699707;185.52400208;117;192;224;255
1.19702148;-114.63098145;185.36900330;105;181;212;255
-0.19396973;-114.33001709;185.60299683;144;210;237;255
1.69500732;-112.41699219;185.82200623;97;186;217;255
1.91497803;-113.43701172;185.00399780;104;113;122;255
1.77697754;-113.02600098;185.65299988;104;179;210;255
1.68597412;-113.30902100;185.41400146;97;166;193;255
1.66699219;-113.29602051;185.64199829;104;170;197;255
1.74597168;-113.95898438;185.03100586;95;117;132;255
0.51300049;-112.71502686;185.83399963;135;206;237;255
0.65997314;-113.09100342;186.01899719;146;217;244;255
1.25402832;-115.27099609;185.14999390;118;193;224;255
-0.07501221;-114.32702637;185.62600708;148;215;242;255
-0.59802246;-113.69201660;185.00799561;124;184;214;255
-0.70697021;-113.96099854;185.04699707;132;197;229;255
-0.43701172;-114.51702881;185.41799927;134;199;227;255
0.88000488;-113.90997314;185.78300476;144;213;244;255
1.10900879;-114.88702393;185.38200378;104;179;210;255
1.32501221;-115.88702393;184.99400330;143;210;239;255
1.28100586;-113.34497070;185.94099426;139;212;241;255
0.54998779;-113.17797852;185.97000122;149;220;249;255
0.70300293;-113.50097656;185.99099731;150;218;246;255
1.15802002;-115.65301514;185.14999390;131;203;234;255
1.39501953;-115.49200439;184.94400024;116;196;225;255
1.93103027;-113.57702637;184.96499634;63;83;95;255
1.71099854;-112.55700684;185.77099609;107;195;228;255
1.76202393;-114.09899902;184.97900391;140;208;232;255
1.05401611;-114.89398193;185.42100525;123;201;233;255
0.90301514;-115.00897217;185.43699646;130;206;236;255
1.81896973;-113.21697998;185.23500061;103;102;113;255
1.87701416;-112.77301025;185.41200256;93;162;193;255
1.14599609;-112.63397217;186.06100464;130;162;175;255
1.66497803;-113.92401123;185.15899658;145;153;160;255
1.59600830;-113.29998779;185.78300476;110;184;217;255
1.46801758;-113.54699707;185.56900024;110;183;215;255
0.98797607;-115.29901123;185.35800171;115;189;220;255
0.61999512;-113.90301514;185.92799377;152;219;246;255
1.09399414;-115.92199707;185.13800049;143;213;242;255
0.89599609;-115.52697754;185.32099915;122;194;226;255
1.39697266;-113.83300781;185.40600586;101;177;209;255
1.44201660;-114.47998047;185.16200256;132;204;237;255
0.89300537;-116.00897217;185.12899780;139;211;241;255
0.82897949;-112.52398682;185.97999573;94;166;197;255
1.36199951;-114.70098877;185.19999695;117;193;224;255
0.63800049;-115.42901611;185.55400085;109;184;215;255
1.04302979;-113.97998047;185.57699585;123;197;229;255
1.12298584;-114.16900635;185.58700562;123;195;228;255
1.26202393;-114.96301270;185.16400146;123;198;228;255
0.45599365;-112.72100830;185.77200317;132;204;236;255
1.35797119;-115.63897705;184.99400330;111;190;220;255
0.84301758;-115.56201172;185.33399963;127;200;232;255
1.36297607;-114.86499023;185.11099243;122;197;227;255
1.28198242;-115.13098145;185.14999390;124;199;229;255
0.69598389;-114.63800049;185.82200623;151;217;246;255
0.10699463;-113.14202881;185.41200256;130;196;228;255
1.24902344;-114.68701172;185.31700134;110;184;215;255
0.73101807;-114.32702637;185.79699707;142;211;240;255
0.78100586;-114.95599365;185.57899475;125;198;230;255
0.88397217;-116.06201172;185.17999268;139;209;239;255
0.91699219;-115.46697998;185.32099915;113;187;216;255
0.28100586;-113.86999512;185.97300720;152;217;245;255
-0.74298096;-113.47998047;184.75999451;53;53;57;255
1.62799072;-113.75299072;185.23699951;86;93;102;255
0.61901855;-114.47698975;185.81199646;144;213;243;255
1.34997559;-113.64099121;185.61000061;111;189;222;255
0.61401367;-115.50598145;185.56700134;118;191;222;255
-0.82202148;-114.31097412;185.11199951;134;199;231;255
0.80999756;-113.34002686;186.05200195;149;222;250;255
1.26300049;-115.83801270;185.04600525;134;205;235;255
1.07598877;-115.43597412;185.21600342;133;204;233;255
1.14697266;-116.09698486;185.04699707;144;214;242;255
1.90197754;-113.67199707;184.92799377;92;126;141;255
0.51000977;-113.59802246;185.98199463;154;220;248;255
-0.85498047;-114.15002441;185.02499390;121;186;218;255
-0.67700195;-114.46002197;185.20899963;138;199;228;255
1.06298828;-115.80700684;185.17700195;138;211;240;255
0.89599609;-113.95898438;185.75700378;142;211;242;255
1.37200928;-115.47802734;184.96899414;113;189;219;255
1.46099854;-115.13098145;184.98199463;111;191;222;255
0.81201172;-115.62799072;185.37300110;149;219;248;255
0.11798096;-115.50500488;185.77999878;160;227;253;255
1.81500244;-113.88201904;184.97900391;117;141;156;255
1.64001465;-113.95599365;185.18499756;127;128;138;255
1.98797607;-113.29699707;184.96499634;106;138;148;255
1.89898682;-113.13299561;185.16999817;155;161;169;255
1.09301758;-113.28802490;186.00799561;145;219;247;255
1.21002197;-115.57202148;185.11199951;118;192;224;255
2.11102295;-113.39501953;184.82299805;36;37;42;255
1.94897461;-113.02502441;185.20700073;78;80;86;255
1.90100098;-113.46197510;185.02999878;100;110;118;255
1.84002686;-112.84802246;185.65299988;111;170;197;255
1.78802490;-113.74902344;185.00599670;112;119;129;255
1.39501953;-112.36499023;186.22099304;77;118;137;255
1.56597900;-113.18402100;185.83399963;114;191;223;255
1.45599365;-113.43499756;185.62100220;118;192;225;255
1.41601563;-114.34802246;185.25100708;106;177;209;255
1.74597168;-115.54498291;184.82200623;33;34;38;255
1.26501465;-113.99798584;185.45799255;107;182;214;255
0.85400391;-112.62902832;186.04200745;63;107;140;255
1.34497070;-114.65197754;185.22599792;115;191;222;255
1.37701416;-115.27801514;185.02099609;116;193;225;255
0.92297363;-113.28100586;186.05000305;140;215;245;255
1.11798096;-114.71502686;185.43299866;111;186;217;255
1.28497314;-115.55102539;185.04699707;124;200;230;255
0.13500977;-112.95697021;185.41200256;120;191;222;255
0.95501709;-115.24700928;185.43400574;112;187;216;255
0.44702148;-113.68597412;186.00799561;153;219;247;255
0.79602051;-114.88702393;185.64199829;125;196;229;255
-0.07702637;-113.50598145;185.41400146;131;199;230;255
0.68499756;-114.69097900;185.82200623;138;208;240;255
0.32598877;-114.44500732;185.85600281;155;220;247;255
0.55200195;-115.41101074;185.61999512;108;184;216;255
0.71801758;-115.04400635;185.60499573;116;187;217;255
0.83300781;-115.70501709;185.35899353;134;205;236;255
-0.49298096;-113.39398193;184.95700073;126;188;217;255
-0.38800049;-113.57000732;185.15600586;145;212;242;255
1.38299561;-113.06500244;185.92700195;125;202;233;255
0.77697754;-114.97399902;185.56599426;128;197;230;255
0.69097900;-114.83801270;185.80799866;146;215;244;255
1.21099854;-114.56097412;185.35600281;110;184;215;255
1.11901855;-114.36901855;185.57400513;124;193;226;255
0.64202881;-115.32000732;185.55499268;104;182;213;255
1.65698242;-113.04797363;185.78199768;116;193;226;255
0.28900146;-112.97900391;185.57299805;145;215;246;255
-0.44702148;-113.34899902;184.98100281;124;186;219;255
-0.93597412;-113.76000977;184.76300049;37;45;54;255
1.38000488;-115.92602539;184.95500183;143;209;237;255
0.05499268;-114.33502197;185.78700256;159;223;251;255
1.45800781;-112.74298096;185.92700195;117;200;225;255
1.62902832;-114.05401611;185.14700317;182;185;189;255
1.41400146;-113.17999268;185.92599487;129;204;236;255
1.75299072;-114.40698242;184.94000244;107;190;221;255
1.00299072;-112.71398926;186.13900757;143;174;191;255
1.08001709;-112.92102051;186.13699341;140;217;242;255
1.57098389;-112.75701904;185.84899902;118;200;231;255
1.11199951;-113.20098877;186.04600525;119;195;225;255
0.75097656;-112.90899658;186.01800537;128;201;230;255
0.64202881;-113.17797852;186.01899719;148;220;247;255
0.50799561;-114.35400391;185.85299683;153;220;246;255
0.58801270;-114.49798584;185.82499695;156;220;247;255
1.25897217;-115.99200439;185.02000427;134;202;231;255
0.15899658;-114.05499268;185.83599854;153;223;249;255
0.57598877;-114.96002197;185.82299805;145;211;236;255
0.13702393;-114.52502441;185.86000061;155;219;244;255
-0.19299316;-113.76501465;185.42799377;130;198;227;255
-0.00500488;-114.58697510;185.82499695;154;220;247;255
0.06500244;-114.73797607;185.84800720;151;216;242;255
-0.28900146;-114.05499268;185.41700745;137;206;235;255
0.55102539;-115.59301758;185.58099365;118;188;219;255
-0.35900879;-114.31402588;185.44200134;139;206;234;255
0.30297852;-115.78900146;185.63600159;134;202;232;255
0.73699951;-112.65997314;185.95599365;136;213;242;255
1.88000488;-113.17498779;185.10699463;110;118;125;255
1.62701416;-115.68499756;184.83599854;5;27;52;255
0.44702148;-115.52600098;185.62100220;130;204;235;255
0.84100342;-114.88702393;185.62800598;132;208;237;255
1.50402832;-113.79101563;185.31500244;115;191;219;255
1.61999512;-112.78497314;185.82200623;131;212;243;255
1.57202148;-112.57501221;185.86199951;121;211;240;255
1.09600830;-112.39599609;186.15100098;145;161;176;255
1.08099365;-113.43200684;185.95799255;141;215;242;255
1.31298828;-114.41802979;185.32899475;109;180;210;255
0.02801514;-113.02600098;185.31300354;121;194;222;255
1.55200195;-114.85797119;184.94299316;107;184;215;255
0.75701904;-114.82397461;185.76899719;124;200;232;255
1.31201172;-113.41497803;185.91499329;131;206;236;255
0.31298828;-114.65197754;185.91900635;163;208;228;255
1.70501709;-114.33300781;184.99200439;120;200;229;255
0.12200928;-115.30499268;185.79400635;165;230;253;255
2.01098633;-113.10101318;185.00399780;91;104;111;255
1.29699707;-113.67602539;185.59800720;114;194;225;255
1.30102539;-113.86798096;185.52099609;112;187;218;255
0.07501221;-114.09301758;185.71200562;150;222;247;255
1.26397705;-113.25000000;185.95399475;141;215;242;255
1.84600830;-112.72198486;185.60299683;86;147;182;255
-0.29602051;-113.81701660;185.35499573;132;199;228;255
0.16198730;-114.72100830;185.93400574;144;206;232;255
0.79901123;-115.78900146;185.41000366;132;202;233;255
0.37200928;-115.80297852;185.60899353;135;206;235;255
1.27801514;-115.19396973;185.14999390;121;198;228;255
0.03100586;-115.30499268;185.80799866;150;217;246;255
1.90502930;-112.67901611;185.37399292;71;130;163;255
1.66998291;-112.49401855;185.80999756;105;193;224;255
1.74499512;-113.09301758;185.65400696;98;168;192;255
1.72497559;-114.01800537;185.04400635;87;117;132;255
1.51800537;-114.11297607;185.21200562;77;79;97;255
0.68298340;-114.25299072;185.83599854;152;217;244;255
0.70800781;-112.61798096;185.91900635;136;210;239;255
0.26300049;-114.21301270;185.84599304;156;223;249;255
0.40698242;-115.02600098;185.82699585;146;211;242;255
-0.08801270;-114.39697266;185.65100098;145;213;240;255
-0.63000488;-113.75799561;185.00900269;121;184;219;255
-0.28900146;-114.48400879;185.61700439;143;208;235;255
-0.72100830;-114.03100586;185.03500366;134;200;232;255
-0.45800781;-114.57702637;185.45599365;139;203;230;255
1.12902832;-114.52600098;185.44599915;120;193;225;255
1.52600098;-113.94201660;185.25100708;62;87;108;255
1.31896973;-112.71398926;185.98100281;71;97;109;255
0.33001709;-114.24499512;185.85699463;161;225;251;255
1.92498779;-113.52099609;184.99099731;95;110;118;255
0.77899170;-113.70697021;185.94999695;151;219;247;255
0.86901855;-113.89001465;185.94799805;151;218;244;255
-0.94299316;-113.93200684;184.82499695;125;166;191;255
1.44097900;-115.62799072;184.94200134;119;194;224;255
1.43298340;-114.44201660;185.19999695;120;192;220;255
0.57897949;-113.03802490;185.98300171;149;220;248;255
0.82501221;-113.57098389;185.97500610;148;219;245;255
1.24298096;-114.88598633;185.25300598;134;208;239;255
0.22100830;-115.13397217;185.83000183;159;226;251;255
1.73797607;-113.52899170;185.24800110;107;112;121;255
1.79400635;-113.29400635;185.22200012;122;126;137;255
2.00201416;-112.76202393;185.20700073;83;81;89;255
1.85198975;-112.84997559;185.41200256;91;165;197;255
0.47601318;-113.31799316;185.97099304;150;221;248;255
0.55603027;-113.46197510;185.96899414;153;221;247;255
0.75799561;-113.84002686;185.79899597;158;223;249;255
0.65100098;-116.06896973;185.41200256;144;213;243;255
1.87799072;-113.91302490;184.85099792;89;132;163;255
0.78302002;-113.99102783;185.84800720;156;221;249;255
0.98101807;-113.43902588;186.02299500;148;219;248;255
0.72998047;-113.33300781;186.05400085;145;215;244;255
-0.05401611;-113.06402588;185.25199890;140;210;241;255
-0.72802734;-113.59197998;184.83500671;76;111;132;255
0.96398926;-112.67901611;186.11500549;146;163;176;255
0.30902100;-113.68499756;185.92300415;154;224;250;255
-0.46997070;-114.35601807;185.33099365;144;207;235;255
0.39599609;-113.88500977;185.94500732;155;222;249;255
0.77801514;-114.62799072;185.74400330;140;206;236;255
1.20697021;-115.54400635;185.12399292;121;195;225;255
0.89099121;-116.16400146;185.20399475;139;211;243;255
1.52502441;-115.34497070;184.90299988;117;193;222;255
1.46801758;-115.00500488;185.00700378;105;186;215;255
1.49401855;-115.22900391;184.92999268;107;186;218;255
1.96899414;-114.14099121;184.84800720;32;36;34;255
0.97998047;-114.34100342;185.65299988;121;196;227;255
1.51702881;-113.64801025;185.41600037;87;165;192;255
0.72998047;-112.55798340;185.93099976;134;209;238;255
1.10998535;-113.63800049;185.85499573;129;204;235;255
0.89202881;-113.72100830;185.84700012;145;219;248;255
0.74102783;-115.63201904;185.46299744;127;199;230;255
-0.03601074;-114.13397217;185.61300659;155;220;248;255
-0.27697754;-113.57501221;185.25399780;146;207;241;255
1.46502686;-114.37597656;185.21200562;66;141;173;255
0.01501465;-115.07397461;185.82200623;160;226;253;255
-0.26599121;-113.43103027;185.22900391;148;207;239;255
1.02801514;-115.01599121;185.35800171;120;193;223;255
1.39202881;-115.73699951;184.96800232;130;201;231;255
1.20300293;-114.13098145;185.53500366;118;191;223;255
1.11798096;-115.84497070;185.13800049;141;212;241;255
1.33801270;-114.94201660;185.11099243;119;195;225;255
1.03997803;-113.78802490;185.74200439;135;208;240;255
1.48498535;-115.76501465;184.91499329;126;202;228;255
0.43597412;-113.46502686;185.95899963;151;217;244;255
1.27697754;-115.33099365;185.12399292;129;204;232;255
0.23602295;-113.01397705;185.54899597;135;201;233;255
0.51000977;-113.14202881;185.93400574;148;217;248;255
0.83801270;-114.28497314;185.71899414;135;207;238;255
1.45800781;-115.67700195;184.92900085;120;195;224;255
1.88397217;-113.41302490;185.04299927;86;92;100;255
1.78802490;-113.23797607;185.24800110;78;85;97;255
1.88897705;-113.90600586;184.83900452;86;144;182;255
1.66998291;-112.44897461;185.83500671;105;194;224;255
1.78198242;-113.69299316;185.04400635;62;68;75;255
1.52697754;-113.59497070;185.40400696;96;170;199;255
1.71997070;-115.09301758;184.83700562;18;20;33;255
1.32501221;-113.67297363;185.62300110;118;193;225;255
1.23498535;-113.50897217;185.81500244;131;206;237;255
1.08099365;-113.13098145;186.05999756;111;188;221;255
1.20300293;-114.38598633;185.41999817;105;177;210;255
1.37097168;-115.22198486;185.04600525;112;188;219;255
0.32702637;-113.73400879;185.94799805;153;222;249;255
0.20599365;-113.96502686;185.91099548;153;221;248;255
0.96398926;-113.39001465;186.03599548;126;201;232;255
0.66302490;-113.11901855;186.01899719;146;217;247;255
0.71197510;-113.28399658;186.05499268;145;214;241;255
0.04498291;-113.59497070;185.53799438;136;209;238;255
1.02899170;-114.92498779;185.40899658;109;182;214;255
1.25598145;-115.91900635;185.04600525;133;204;233;255
0.42797852;-113.17999268;185.85899353;149;218;247;255
0.77197266;-113.95202637;185.84800720;146;215;243;255
-0.85302734;-114.04101563;184.93699646;114;181;215;255
-0.29699707;-113.77099609;185.31700134;138;207;236;255
0.88098145;-116.12500000;185.20500183;138;208;239;255
0.27697754;-115.51898193;185.71400452;136;205;235;255
-0.22100830;-113.72302246;185.41700745;134;203;233;255
0.77398682;-115.91198730;185.42300415;135;206;236;255
-0.39898682;-114.05102539;185.33099365;138;205;234;255
-0.37597656;-113.79199219;185.24299622;144;212;241;255
0.57000732;-115.36901855;185.60699463;121;193;224;255
0.11901855;-114.47497559;185.84800720;148;213;240;255
1.57897949;-112.25701904;186.12899780;40;76;105;255
1.29302979;-113.06500244;185.95399475;137;213;243;255
1.36499023;-113.19799805;185.94000244;139;213;242;255
0.89099121;-112.77301025;186.11599731;109;161;189;255
0.98797607;-112.96600342;186.11300659;140;214;242;255
1.55401611;-112.70800781;185.86199951;107;192;223;255
0.65002441;-114.63800049;185.82299805;146;211;239;255
0.22100830;-114.19500732;185.83399963;159;227;253;255
0.30798340;-114.39501953;185.84399414;155;221;247;255
-0.03100586;-113.64300537;185.45100403;133;207;235;255
0.82098389;-115.45697021;185.42399597;113;184;213;255
0.37298584;-115.01898193;185.83999634;146;215;242;255
-0.27697754;-113.52899170;185.22900391;141;209;238;255
0.10198975;-113.45098877;185.56199646;138;209;240;255
-0.37701416;-114.26501465;185.41799927;139;207;234;255
-0.48199463;-114.08898926;185.24400330;144;211;239;255
-0.35998535;-114.87902832;185.65499878;153;220;246;255
-0.72802734;-113.97497559;185.02299500;121;194;227;255
-0.60198975;-114.32000732;185.23300171;152;218;244;255
0.05603027;-113.11401367;185.35000610;124;190;222;255
0.03802490;-113.72100830;185.58799744;138;211;241;255
0.60900879;-115.01300049;185.75900269;137;205;235;255
0.08697510;-114.35900879;185.79899597;154;221;247;255
1.13500977;-115.94000244;185.12399292;140;212;240;255
1.93402100;-113.99700928;184.83700562;13;23;40;255
1.60601807;-112.85498047;185.82200623;127;207;238;255
1.74798584;-114.12298584;185.00500488;147;205;229;255
1.47198486;-112.46301270;186.04200745;75;104;117;255
1.53198242;-113.08599854;185.84800720;122;201;233;255
1.52099609;-113.53900146;185.42900085;99;170;204;255
1.27099609;-112.54998779;186.03300476;89;117;129;255
1.42797852;-113.39300537;185.62199402;120;193;226;255
1.41900635;-113.37298584;185.83700562;123;198;230;255
1.55798340;-114.61297607;185.04499817;104;181;213;255
1.25299072;-113.00201416;186.05700684;111;189;218;255
1.30102539;-113.61297607;185.62300110;121;197;229;255
1.30499268;-114.10601807;185.41900635;107;182;214;255
0.38397217;-113.36297607;185.94799805;148;216;244;255
1.07800293;-113.10302734;186.05999756;122;199;232;255
1.11798096;-113.25701904;186.02099609;136;211;243;255
1.58599854;-114.26397705;185.13400269;138;182;205;255
1.49700928;-114.51898193;185.12199402;127;201;232;255
1.46197510;-115.43200684;184.92999268;111;189;219;255
0.32000732;-113.45001221;185.92399597;151;222;249;255
1.42199707;-115.85198975;184.94099426;136;204;234;255
0.39501953;-114.11199951;185.93200684;154;220;247;255
0.75701904;-114.82397461;185.74400330;139;204;233;255
-0.63500977;-113.92999268;185.10899353;148;216;247;255
0.75799561;-114.55102539;185.74499512;139;206;236;255
-0.21997070;-114.17901611;185.52799988;139;206;236;255
0.27099609;-115.28100586;185.72700500;148;215;242;255
-0.48999023;-113.62298584;185.11999512;143;207;237;255
0.63098145;-116.02001953;185.31199646;139;208;237;255
-0.54699707;-113.42901611;184.90699768;109;186;216;255
0.78302002;-112.97900391;186.04200745;130;206;235;255
-0.18597412;-114.79602051;185.75199890;152;221;247;255
0.94000244;-113.33001709;186.03700256;123;198;227;255
1.02301025;-113.99401855;185.61500549;127;201;233;255
-0.23901367;-115.05902100;185.75199890;148;215;240;255
-0.43103027;-114.72802734;185.55599976;141;206;233;255
-0.53002930;-114.51702881;185.34399414;146;210;238;255
1.32000732;-115.64898682;185.02000427;115;191;220;255
1.25402832;-114.35101318;185.35600281;115;188;220;255
1.96197510;-113.16400146;185.01699829;90;93;98;255
1.92999268;-114.05999756;184.83700562;34;36;49;255
1.65698242;-114.39697266;185.05599976;123;199;229;255
0.80102539;-113.02801514;186.05400085;136;209;239;255
1.47601318;-114.92498779;185.00700378;109;188;219;255
1.35400391;-115.65600586;185.00700378;118;193;223;255
0.66601563;-114.20397949;185.85000610;152;217;245;255
0.93402100;-115.21502686;185.43499756;102;176;205;255
0.63500977;-113.07702637;186.02000427;145;216;246;255
0.31097412;-112.96502686;185.62300110;135;204;235;255
0.03900146;-113.81201172;185.63800049;144;211;240;255
0.64099121;-115.10998535;185.63099670;111;183;215;255
0.67401123;-113.24902344;186.04299927;143;214;242;255
0.73699951;-113.88098145;185.64700317;146;215;244;255
0.14300537;-113.05902100;185.44900513;129;195;227;255
-0.11700439;-114.35498047;185.62600708;147;214;241;255
0.03002930;-114.73101807;185.83599854;149;214;242;255
-0.21997070;-114.63397217;185.61500549;149;214;242;255
0.27801514;-115.72900391;185.63699341;131;198;227;255
1.06799316;-115.51599121;185.20300293;121;193;222;255
0.68402100;-114.16198730;185.84899902;145;214;242;255
-0.09899902;-113.29199219;185.33999634;131;197;230;255
1.00500488;-116.13201904;185.12600708;142;214;244;255
0.03997803;-113.33801270;185.44999695;131;197;229;255
0.57299805;-113.96600342;186.01699829;149;215;242;255
0.07299805;-113.54602051;185.55000305;139;207;236;255
-0.76501465;-114.39599609;185.14799500;153;217;246;255
-0.56597900;-113.37902832;184.84500122;122;150;170;255
0.04602051;-113.77697754;185.62500000;140;209;238;255
0.64898682;-115.07501221;185.64399719;103;177;209;255
-0.14001465;-113.82098389;185.45199585;137;204;233;255
0.30102539;-114.33898926;185.84500122;154;221;247;255
0.75701904;-115.86297607;185.42300415;131;201;233;255
0.11199951;-114.41900635;185.83599854;153;218;245;255
0.59600830;-115.98498535;185.45199585;131;199;229;255
1.02197266;-116.18103027;185.11300659;148;217;246;255
0.49798584;-115.71899414;185.58099365;128;196;226;255
1.17401123;-115.30999756;185.21499634;141;211;242;255
1.55700684;-114.70397949;185.00700378;123;201;233;255
1.42297363;-114.31201172;185.23899841;136;205;237;255
1.50799561;-114.07501221;185.23800659;87;103;123;255
0.17602539;-115.08898926;185.84399414;157;223;248;255
1.00000000;-114.46301270;185.62600708;123;193;224;255
0.57098389;-114.44897461;185.83799744;155;221;245;255
0.67498779;-114.60699463;185.80999756;149;214;241;255
-0.04901123;-113.59399414;185.42599487;128;201;231;255
-0.40100098;-113.30401611;185.00599670;110;183;215;255
0.01300049;-114.68200684;185.82400513;152;217;245;255
0.42602539;-115.58599854;185.62199402;139;208;238;255
-0.39501953;-113.51397705;185.13099670;147;213;244;255
-0.42602539;-113.76300049;185.20599365;144;212;241;255
-0.51800537;-114.03601074;185.20700073;146;213;242;255
-0.03997803;-113.83300781;185.53900146;142;208;237;255
-0.09497070;-115.38897705;185.81100464;158;223;248;255
-0.37799072;-114.83001709;185.63000488;149;214;241;255
-0.61999512;-114.31597900;185.23300171;150;215;242;255
0.30798340;-114.09497070;185.95899963;153;220;247;255
-0.87597656;-114.20898438;185.05000305;123;188;221;255
0.53497314;-115.10699463;185.74800110;132;204;235;255
1.33001709;-114.76702881;185.18800354;113;188;218;255
0.42401123;-113.92700195;185.94500732;156;223;249;255
1.76702881;-113.59899902;185.13299561;114;121;125;255
1.39599609;-112.32000732;186.24600220;76;140;164;255
0.83300781;-112.59698486;186.01699829;103;163;191;255
-0.39300537;-113.35998535;185.05599976;136;200;230;255
-1.04602051;-113.87402344;184.60099792;36;43;51;255
-0.43103027;-114.16302490;185.35600281;142;207;234;255
-0.29101563;-114.95697021;185.75399780;152;220;246;255
-0.19396973;-115.15002441;185.75100708;156;221;248;255
1.73602295;-115.50598145;184.83500671;21;25;31;255
0.99401855;-115.83801270;185.21600342;138;208;239;255
1.13500977;-114.67297363;185.41999817;111;187;218;255
1.59698486;-113.77398682;185.25000000;76;91;103;255
2.09600830;-112.90899658;185.01499939;74;86;88;255
0.80902100;-113.47698975;186.02699280;136;208;239;255
0.57202148;-115.62500000;185.58000183;124;193;223;255
-0.27801514;-113.82098389;185.38000488;139;208;237;255
-0.13897705;-114.65997314;185.76400757;151;220;245;255
1.60900879;-112.44500732;185.92500305;97;165;194;255
1.76202393;-112.84100342;185.75599670;95;139;164;255
2.01898193;-113.66802979;184.84899902;6;16;34;255
1.87200928;-113.30102539;185.09399414;99;105;109;255
1.81402588;-112.62402344;185.70500183;76;144;182;255
1.61999512;-112.27398682;186.06399536;70;108;135;255
1.63397217;-114.24597168;185.09500122;127;178;204;255
1.55200195;-114.55700684;185.07099915;120;196;226;255
1.09698486;-112.51397705;186.07499695;137;162;174;255
1.58697510;-115.16601563;184.86500549;90;171;206;255
1.20599365;-113.79400635;185.49800110;120;194;227;255
1.61700439;-115.60101318;184.85000610;9;50;84;255
1.04797363;-112.98699951;186.11199951;126;208;237;255
1.22198486;-114.25299072;185.48300171;104;177;208;255
-0.88098145;-113.99902344;184.91200256;120;183;213;255
0.87799072;-113.05297852;186.07699585;143;218;248;255
1.02398682;-113.85797119;185.66600037;132;205;237;255
1.49102783;-115.86700439;184.90199280;121;191;217;255
0.92199707;-114.13800049;185.69299316;134;206;238;255
1.17602539;-115.17297363;185.25300598;122;195;226;255
1.24298096;-115.80700684;185.05900574;132;204;234;255
-0.01202393;-113.03601074;185.26300049;128;196;226;255
0.90698242;-114.61798096;185.70399475;102;175;206;255
1.06597900;-115.39697266;185.25399780;119;193;223;255
1.13000488;-116.04797363;185.07299805;139;211;240;255
0.98498535;-115.66302490;185.25500488;138;208;238;255
0.78802490;-115.31298828;185.50100708;94;169;198;255
-0.25201416;-113.54302979;185.26699829;139;204;236;255
0.56701660;-114.73999023;185.87500000;148;215;244;255
0.71301270;-115.59002686;185.47599792;127;200;232;255
0.19897461;-115.37597656;185.77900696;147;216;243;255
0.47900391;-115.89801025;185.55599976;132;199;228;255
-0.38098145;-114.09997559;185.36799622;140;208;236;255
-0.21697998;-114.86297607;185.76499939;153;220;246;255
0.21697998;-114.48602295;185.87100220;149;213;240;255
0.37500000;-114.83697510;185.90400696;142;207;235;255
1.55499268;-112.06097412;186.10499573;73;96;119;255
1.37298584;-112.16998291;186.29800415;103;157;190;255
0.95599365;-113.67999268;185.87100220;146;217;244;255
1.72100830;-114.91101074;184.86300659;55;55;60;255
1.52099609;-115.40802002;184.89100647;112;197;221;255
0.29400635;-113.75500488;185.89799500;151;221;247;255
0.47198486;-114.13702393;185.90499878;155;222;248;255
0.44201660;-114.59600830;185.89100647;148;213;241;255
0.04302979;-114.11401367;185.67399597;149;221;246;255
0.53698730;-115.22601318;185.67100525;132;205;234;255
0.76898193;-115.76501465;185.48699951;139;208;236;255
0.11199951;-114.73797607;185.88499451;147;213;239;255
0.18902588;-114.90002441;185.90800476;156;220;247;255
0.34802246;-115.30603027;185.71299744;136;203;229;255
-0.31597900;-114.28698730;185.46699524;140;209;237;255
0.27001953;-115.55401611;185.70100403;140;206;236;255
-0.29199219;-114.91101074;185.70399475;149;218;243;255
-0.51300049;-114.38299561;185.30700684;144;209;236;255
-0.11999512;-115.05603027;185.76199341;152;219;244;255
-0.78997803;-114.24499512;185.09899902;142;208;239;255
1.60900879;-112.37200928;186.05200195;57;118;147;255
1.79101563;-113.22100830;185.24800110;51;65;84;255
0.91699219;-115.16601563;185.43600464;107;178;206;255
0.01000977;-114.22601318;185.66200256;147;216;242;255
0.67901611;-114.93597412;185.73199463;136;206;237;255
-0.13500977;-114.30499268;185.61399841;144;210;237;255
0.56097412;-116.39697266;185.22300720;138;207;235;255
-0.83697510;-113.72497559;184.81100464;65;90;110;255
1.09399414;-112.85101318;186.14900208;103;162;187;255
1.28802490;-113.17297363;185.94099426;134;209;239;255
1.82702637;-113.43798828;185.14500427;125;130;136;255
0.82598877;-115.83099365;185.39700317;132;203;233;255
1.53100586;-112.55700684;185.90100098;94;168;193;255
1.92102051;-113.88500977;184.86300659;37;64;85;255
1.51599121;-112.99102783;185.88699341;125;206;238;255
1.43298340;-114.78802490;185.09700012;112;189;219;255
1.08898926;-114.50897217;185.49800110;111;184;214;255
0.54400635;-114.31597900;185.86500549;152;218;244;255
0.75897217;-116.19097900;185.27000427;139;206;235;255
-0.24200439;-114.01000977;185.46600342;136;201;231;255
0.40997314;-115.49102783;185.67300415;135;205;237;255
-0.68499756;-113.56500244;184.85899353;118;154;176;255
0.59802246;-116.31402588;185.29899597;136;204;234;255
-0.08502197;-115.24499512;185.78599548;161;225;250;255
0.04797363;-115.44500732;185.80700684;155;222;248;255
0.21801758;-115.54400635;185.71499634;146;214;240;255
1.24200439;-115.89801025;185.04600525;148;218;244;255
0.17999268;-115.46301270;185.76600647;145;214;242;255
1.47601318;-115.54400635;184.92900085;117;194;221;255
1.24597168;-114.61401367;185.33000183;111;186;217;255
0.34100342;-113.61798096;185.93499756;153;222;249;255
1.40301514;-114.28100586;185.25199890;144;212;241;255
0.17700195;-115.04302979;185.85699463;170;233;255;255
1.97497559;-113.14001465;185.00399780;115;123;130;255
